X,Y,Z,intensity,ring,dist
1.39655,1.3657,-0.239839,64.0,4,1.3965548276901245
1.89848,1.85588,0.420496,91.0,12,1.898478627204895
1.2725,1.24351,-0.15566,45.0,5,1.2724956274032593
1.89871,1.85481,0.515948,100.0,13,1.8987058401107788
1.25175,1.22238,-0.0916926,100.0,6,1.25174880027771
1.89507,1.84997,0.611417,86.0,14,1.8950735330581665
1.27209,1.24182,-0.0310304,63.0,7,1.2720913887023926
1.87759,1.83226,0.702953,100.0,15,1.8775866031646729
1.52018,1.47934,-0.568367,2.0,0,1.5201752185821533
1.39036,1.35254,0.0338577,64.0,8,1.3903582096099854
1.48229,1.44147,-0.477346,1.0,1,1.4822940826416016
1.92044,1.8669,0.140365,68.0,9,1.9204449653625488
1.35422,1.31647,-0.367117,0.0,2,1.3542234897613525
1.91323,1.85924,0.233403,68.0,10,1.9132301807403564
1.39847,1.35853,-0.308802,1.0,3,1.3984698057174683
1.90829,1.85314,0.32661,101.0,11,1.9082932472229004
1.40725,1.3661,-0.240814,62.0,4,1.407248854637146
1.9081,1.85167,0.421122,91.0,12,1.9081027507781982
1.26968,1.23212,-0.154789,49.0,5,1.2696791887283325
1.88826,1.83177,0.511368,83.0,13,1.8882595300674438
1.25457,1.21662,-0.0915879,91.0,6,1.2545739412307739
1.90712,1.84877,0.613217,92.0,14,1.9071160554885864
1.28094,1.24132,-0.0311351,55.0,7,1.2809420824050903
1.88429,1.82537,0.702953,100.0,15,1.8842900991439819
1.542,1.49013,-0.574578,3.0,0,1.5419996976852417
1.38932,1.34212,0.033718,64.0,8,1.3893183469772339
1.48451,1.43358,-0.476446,1.0,1,1.4845134019851685
1.9327,1.86573,0.140784,70.0,9,1.9326972961425781
1.35034,1.30355,-0.364827,0.0,2,1.3503353595733643
1.92401,1.8567,0.233926,69.0,10,1.9240089654922485
1.38614,1.33718,-0.305047,1.0,3,1.3861435651779175
1.91046,1.84234,0.325879,99.0,11,1.9104632139205933
1.41487,1.36394,-0.241301,61.0,4,1.4148669242858887
1.92593,1.85596,0.423625,86.0,12,1.9259344339370728
1.28402,1.23736,-0.156009,53.0,5,1.2840151786804199
1.90595,1.83606,0.514421,100.0,13,1.9059540033340454
1.25594,1.20946,-0.0913786,88.0,6,1.2559355497360229
1.92479,1.85291,0.616816,88.0,14,1.9247897863388062
1.29247,1.24377,-0.0313096,46.0,7,1.2924720048904419
1.89343,1.82146,0.703988,100.0,15,1.8934342861175537
1.51932,1.45799,-0.564226,7.0,0,1.5193150043487549
1.39688,1.34003,0.0337879,45.0,8,1.3968813419342041
1.93343,1.85345,0.140365,70.0,9,1.9334316253662109
1.36338,1.30698,-0.367117,0.0,2,1.3633811473846436
1.93623,1.85548,0.234623,71.0,10,1.9362328052520752
1.3908,1.33234,-0.305047,1.0,3,1.3908017873764038
1.91402,1.83291,0.325391,99.0,11,1.9140156507492065
1.41102,1.35075,-0.239839,64.0,4,1.4110157489776611
1.93811,1.85469,0.424876,88.0,12,1.9381086826324463
1.28545,1.23012,-0.15566,49.0,5,1.2854468822479248
1.91235,1.8294,0.514421,87.0,13,1.9123510122299194
1.25726,1.20231,-0.0911692,88.0,6,1.2572630643844604
1.92561,1.8408,0.615016,88.0,14,1.9256100654602051
1.29681,1.23925,-0.0313096,59.0,7,1.2968055009841919
1.91096,1.82551,0.708129,99.0,15,1.9109566211700439
1.45027,1.38204,-0.536791,5.0,0,1.4502735137939453
1.94016,1.84824,0.0467725,73.0,8,1.940162181854248
1.94568,1.85219,0.140784,70.0,9,1.945676326751709
1.36794,1.30221,-0.367117,0.0,2,1.3679354190826416
1.94558,1.85146,0.234972,66.0,10,1.9455839395523071
1.39258,1.32475,-0.304422,1.0,3,1.3925820589065552
1.92616,1.83169,0.326366,96.0,11,1.9261566400527954
1.41284,1.34309,-0.239351,65.0,4,1.4128444194793701
1.93884,1.84247,0.423625,91.0,12,1.9388436079025269
1.29695,1.23249,-0.156532,48.0,5,1.2969546318054199
1.923,1.82677,0.515566,96.0,13,1.9229955673217773
1.26725,1.20341,-0.0915879,86.0,6,1.2672451734542847
1.92496,1.82736,0.612767,83.0,14,1.9249577522277832
1.30548,1.23885,-0.0314143,55.0,7,1.3054753541946411
1.92292,1.82415,0.7102,100.0,15,1.9229229688644409
1.43825,1.36104,-0.530579,5.0,0,1.438249945640564
1.96258,1.85657,0.0471564,72.0,8,1.962581992149353
1.95213,1.84539,0.140784,70.0,9,1.9521286487579346
1.3582,1.28394,-0.3633,0.0,2,1.3582048416137695
1.94624,1.83918,0.234275,66.0,10,1.9462431669235229
1.40151,1.32395,-0.30536,1.0,3,1.4015060663223267
1.93687,1.82905,0.327097,79.0,11,1.9368669986724854
1.4233,1.3436,-0.240326,65.0,4,1.4232984781265259
1.93952,1.83027,0.422373,91.0,12,1.9395169019699097
1.3056,1.23205,-0.157055,45.0,5,1.3055962324142456
1.93507,1.82543,0.517092,99.0,13,1.9350717067718506
1.28306,1.20994,-0.0924253,91.0,6,1.2830630540847778
1.94692,1.83533,0.617716,86.0,14,1.9469232559204102
1.30542,1.23017,-0.0313096,53.0,7,1.3054249286651611
1.92084,1.80948,0.707094,100.0,15,1.9208420515060425
1.44299,1.35601,-0.530579,7.0,0,1.4429924488067627
1.96613,1.84697,0.0470866,74.0,8,1.9661346673965454
1.96438,1.84403,0.141202,70.0,9,1.9643837213516235
1.36554,1.28188,-0.364064,1.0,2,1.3655415773391724
1.95265,1.83238,0.234275,66.0,10,1.9526517391204834
1.40324,1.31635,-0.304734,1.0,3,1.4032372236251831
1.95482,1.83314,0.329047,79.0,11,1.9548244476318359
1.42798,1.33862,-0.240326,67.0,4,1.4279801845550537
1.95454,1.83159,0.42425,91.0,12,1.9545421600341797
1.32443,1.24111,-0.158798,47.0,5,1.3244270086288452
1.93713,1.81464,0.515948,85.0,13,1.9371341466903687
1.29894,1.21638,-0.0932627,97.0,6,1.2989418506622314
1.95474,1.82985,0.618165,80.0,14,1.9547402858734131
1.31263,1.22834,-0.0313794,52.0,7,1.3126317262649536
1.92856,1.80408,0.707611,91.0,15,1.9285581111907959
1.97108,1.84063,-0.722623,12.0,0,1.9710770845413208
1.96901,1.83805,0.0470168,72.0,8,1.9690051078796387
1.98185,1.84875,0.14204,68.0,9,1.9818505048751831
1.35521,1.26419,-0.360247,1.0,2,1.355205774307251
1.96714,1.83439,0.23532,69.0,10,1.9671412706375122
1.39436,1.29981,-0.301919,1.0,3,1.3943610191345215
1.9475,1.81481,0.326854,70.0,11,1.9475030899047852
1.43218,1.33413,-0.240326,74.0,4,1.4321783781051636
1.96896,1.83352,0.426128,88.0,12,1.968960165977478
1.35478,1.26115,-0.161935,21.0,5,1.3547849655151367
1.9457,1.81122,0.516711,100.0,13,1.9456990957260132
1.28229,1.19324,-0.0917973,69.0,6,1.2822867631912231
1.97189,1.83432,0.621765,83.0,14,1.9718946218490601
1.32234,1.22966,-0.031519,51.0,7,1.3223414421081543
1.93988,1.80327,0.709682,95.0,15,1.9398754835128784
1.98348,1.83865,-0.724693,16.0,0,1.9834768772125244
1.98421,1.83933,0.0472262,76.0,8,1.9842070341110229
1.98097,1.83504,0.141516,72.0,9,1.980966329574585
1.3872,1.28456,-0.367498,1.0,2,1.3871992826461792
1.97678,1.82987,0.235669,66.0,10,1.9767752885818481
1.41651,1.31079,-0.305673,1.0,3,1.41651451587677
1.9582,1.81204,0.327585,97.0,11,1.9581975936889648
1.431,1.32373,-0.239351,69.0,4,1.430997371673584
1.97825,1.82932,0.426753,86.0,12,1.9782493114471436
1.35333,1.251,-0.161238,5.0,5,1.3533271551132202
1.95088,1.80275,0.516329,100.0,13,1.9508829116821289
1.28518,1.18718,-0.0916926,69.0,6,1.2851841449737549
1.97431,1.82312,0.620415,86.0,14,1.9743088483810425
1.39421,1.28744,-0.0331247,46.0,7,1.3942060470581055
1.949,1.79911,0.710717,95.0,15,1.9489970207214355
1.99273,1.83433,-0.725729,17.0,0,1.9927259683609009
1.99682,1.83746,0.0473658,76.0,8,1.9968223571777344
1.98589,1.82676,0.141412,70.0,9,1.985889196395874
1.37722,1.26642,-0.363682,1.0,2,1.3772237300872803
1.98902,1.82835,0.236366,69.0,10,1.989018440246582
1.41817,1.30316,-0.305047,1.0,3,1.4181720018386841
1.96629,1.8062,0.327829,99.0,11,1.96628737449646
1.4373,1.31982,-0.239595,53.0,4,1.4373019933700562
1.98171,1.81973,0.426128,86.0,12,1.9817134141921997
1.34301,1.2328,-0.159495,2.0,5,1.3430076837539673
1.96874,1.80655,0.519382,100.0,13,1.9687356948852539
1.30698,1.19889,-0.0929487,71.0,6,1.3069826364517212
1.97635,1.81226,0.619065,82.0,14,1.9763513803482056
1.39574,1.27986,-0.0330549,46.0,7,1.3957434892654419
1.96523,1.80144,0.714341,100.0,15,1.9652334451675415
1.99912,1.82737,-0.725729,16.0,0,1.999117374420166
2.0029,1.83083,0.0473658,78.0,8,2.0029044151306152
1.53211,1.39999,-0.479146,1.0,1,1.5321078300476074
2.00258,1.82924,0.142144,65.0,9,2.0025768280029297
1.38019,1.26028,-0.3633,2.0,2,1.3801864385604858
1.99392,1.82006,0.236192,68.0,10,1.9939165115356445
1.41957,1.29579,-0.304422,1.0,3,1.4195680618286133
1.98106,1.80769,0.329291,96.0,11,1.9810645580291748
1.98805,1.8128,0.426128,86.0,12,1.9880529642105103
1.32816,1.21065,-0.157229,1.0,5,1.3281612396240234
1.97762,1.80265,0.520145,100.0,13,1.9776180982589722
1.32424,1.20665,-0.0938907,87.0,6,1.3242374658584595
1.98811,1.81095,0.620865,83.0,14,1.9881135225296021
1.3795,1.25613,-0.0325662,45.0,7,1.3795028924942017
1.9658,1.78936,0.71227,99.0,15,1.9657955169677734
2.00374,1.81943,-0.725211,15.0,0,2.0037355422973633
2.01521,1.8292,0.0475054,74.0,8,2.0152051448822021
1.53987,1.39725,-0.480046,6.0,1,1.5398714542388916
2.01043,1.82359,0.142249,67.0,9,2.0104289054870605
1.37709,1.2491,-0.361392,1.0,2,1.3770869970321655
1.99846,1.8121,0.236018,71.0,10,1.998464822769165
1.41237,1.28021,-0.301919,0.0,3,1.412373423576355
1.99031,1.80343,0.329778,90.0,11,1.9903050661087036
1.3668,1.23804,-0.226433,5.0,4,1.3668035268783569
1.99583,1.80717,0.42644,84.0,12,1.9958324432373047
1.34694,1.21962,-0.158972,2.0,5,1.3469372987747192
1.97953,1.79178,0.519,100.0,13,1.9795321226119995
1.32252,1.19667,-0.093472,73.0,6,1.3225172758102417
2.00309,1.81184,0.623564,74.0,14,2.0030934810638428
1.38685,1.25399,-0.032636,52.0,7,1.3868461847305298
1.96773,1.77861,0.710717,91.0,15,1.9677298069000244
2.01438,1.8163,-0.726764,16.0,0,2.0143790245056152
2.01861,1.81948,0.0474356,70.0,8,2.0186078548431396
1.53895,1.38665,-0.478246,2.0,1,1.5389481782913208
2.02717,1.82591,0.142982,63.0,9,2.0271706581115723
1.39603,1.25743,-0.365208,1.0,2,1.3960267305374146
2.0107,1.81044,0.236715,71.0,10,2.0107009410858154
1.39041,1.25149,-0.296287,0.0,3,1.3904052972793579
1.99364,1.79382,0.329291,92.0,11,1.9936364889144897
1.37112,1.23326,-0.226433,4.0,4,1.371117115020752
2.008,1.80548,0.427692,82.0,12,2.0080039501190186
1.35711,1.22024,-0.159669,3.0,5,1.3571124076843262
1.98139,1.78093,0.517856,100.0,13,1.9813940525054932
1.3252,1.19071,-0.0933674,69.0,6,1.3252010345458984
2.00506,1.80093,0.622215,74.0,14,2.0050570964813232
1.39717,1.25449,-0.0327756,52.0,7,1.39716637134552
1.98687,1.78334,0.715376,99.0,15,1.9868658781051636
2.0279,1.8157,-0.729352,15.0,0,2.0279026031494141
2.02793,1.81509,0.0475054,70.0,8,2.0279262065887451
1.55249,1.38906,-0.480945,1.0,1,1.5524930953979492
2.02311,1.80951,0.142249,67.0,9,2.0231108665466309
1.41943,1.26956,-0.370169,0.0,2,1.4194304943084717
2.02295,1.80873,0.237412,69.0,10,2.02294921875
1.37709,1.23083,-0.292533,2.0,3,1.3770918846130371
1.99841,1.78553,0.329047,66.0,11,1.9984052181243896
1.36949,1.22318,-0.225458,3.0,4,1.3694912195205688
2.02019,1.80372,0.428943,79.0,12,2.020188570022583
1.35691,1.21151,-0.159146,1.0,5,1.3569051027297974
1.99639,1.78184,0.520145,99.0,13,1.9963861703872681
1.33382,1.19006,-0.0936814,56.0,6,1.3338199853897095
2.01569,1.79781,0.623564,55.0,14,2.0156939029693604
1.41049,1.25759,-0.0329851,44.0,7,1.4104921817779541
1.9974,1.78025,0.716929,95.0,15,1.9974048137664795
2.03712,1.81118,-0.730387,16.0,0,2.0371153354644775
2.04023,1.81331,0.0476451,74.0,8,2.0402288436889648
2.03539,1.80774,0.142668,67.0,9,2.0353877544403076
2.03223,1.8043,0.237761,71.0,10,2.0322308540344238
1.3799,1.2247,-0.29222,2.0,3,1.3799028396606445
2.01502,1.78776,0.330753,70.0,11,2.0150198936462402
1.37524,1.21971,-0.225702,2.0,4,1.3752379417419434
2.02647,1.79666,0.428943,84.0,12,2.026472806930542
1.36411,1.20941,-0.159495,2.0,5,1.3641078472137451
2.01288,1.78398,0.522817,100.0,13,2.01287841796875
1.36786,1.21189,-0.0957748,70.0,6,1.3678648471832275
2.01904,1.78818,0.622665,70.0,14,2.0190401077270508
1.41637,1.25398,-0.03302,31.0,7,1.4163702726364136
2.0065,1.77583,0.717964,93.0,15,2.0065007209777832
2.03763,1.79895,-0.728317,14.0,0,2.037632942199707
2.05254,1.81147,0.0477847,72.0,8,2.0525429248809814
2.04137,1.80098,0.142668,68.0,9,2.0413718223571777
2.04151,1.79983,0.238109,69.0,10,2.0415050983428955
1.38565,1.22119,-0.292533,2.0,3,1.3856511116027832
2.0287,1.78728,0.331972,85.0,11,2.0286960601806641
1.38247,1.21752,-0.22619,2.0,4,1.3824663162231445
2.03538,1.79254,0.429569,79.0,12,2.035383939743042
1.3743,1.20991,-0.160192,1.0,5,1.3743026256561279
2.02352,1.78083,0.523962,100.0,13,2.0235152244567871
1.37059,1.20579,-0.0956701,71.0,6,1.3705875873565674
2.03844,1.79271,0.626714,62.0,14,2.0384392738342285
1.41301,1.24267,-0.0328454,30.0,7,1.413013219833374
2.00657,1.76406,0.715894,91.0,15,2.0065743923187256
2.05116,1.79819,-0.730905,2.0,0,2.0511629581451416
2.05553,1.80202,0.0477149,70.0,8,2.0555312633514404
1.61654,1.41667,-0.496242,1.0,1,1.6165441274642944
2.05816,1.80305,0.143401,65.0,9,2.0581626892089844
2.03878,1.78482,0.237064,65.0,10,2.0387802124023438
1.39118,1.21789,-0.292845,2.0,3,1.3911792039871216
2.03461,1.78054,0.331972,56.0,11,2.0346124172210693
1.3865,1.21293,-0.22619,2.0,4,1.3864966630935669
2.04163,1.78542,0.429569,81.0,12,2.041628360748291
1.37102,1.19855,-0.159321,1.0,5,1.3710179328918457
2.0235,1.76894,0.522435,99.0,13,2.0234975814819336
1.38811,1.21306,-0.0966122,52.0,6,1.3881136178970337
2.04291,1.78465,0.626264,69.0,14,2.0429050922393799
1.44295,1.26009,-0.0334388,24.0,7,1.4429481029510498
2.01854,1.76213,0.717964,91.0,15,2.0185420513153076
1.57052,1.36764,-0.558014,1.0,0,1.5705164670944214
2.06181,1.79483,0.0477149,74.0,8,2.0618093013763428
1.6744,1.45708,-0.512438,1.0,1,1.674402117729187
2.07198,1.80241,0.143924,67.0,9,2.0719771385192871
2.0507,1.78328,0.237761,71.0,10,2.0507020950317383
1.38946,1.20784,-0.291594,1.0,3,1.3894588947296143
2.03932,1.77213,0.331728,62.0,11,2.0393152236938477
1.40271,1.2185,-0.228139,1.0,4,1.4027107954025269
2.0568,1.78606,0.431446,79.0,12,2.0567977428436279
1.381,1.19922,-0.160018,1.0,5,1.3810020685195923
2.02966,1.76187,0.522435,100.0,13,2.0296587944030762
1.40441,1.21868,-0.0974496,51.0,6,1.4044073820114136
2.06532,1.79156,0.631213,50.0,14,2.0653154850006104
1.45187,1.25898,-0.0335435,24.0,7,1.4518705606460571
2.03052,1.76013,0.720035,91.0,15,2.0305192470550537
1.51391,1.30908,-0.536273,1.0,0,1.5139065980911255
2.07411,1.79285,0.0478545,72.0,8,2.0741138458251953
1.67948,1.45122,-0.512438,1.0,1,1.6794776916503906
2.06768,1.78603,0.143191,65.0,9,2.067676305770874
2.0735,1.79043,0.239678,72.0,10,2.0735030174255371
1.40563,1.21331,-0.294097,1.0,3,1.4056291580200195
2.04549,1.765,0.331728,67.0,11,2.0454893112182617
1.40094,1.20841,-0.227164,1.0,4,1.4009432792663574
2.06601,1.78145,0.432072,78.0,12,2.0660114288330078
1.39574,1.2035,-0.161238,1.0,5,1.3957418203353882
2.04323,1.76118,0.524343,100.0,13,2.0432324409484863
1.40865,1.21377,-0.0974496,51.0,6,1.4086531400680542
2.05088,1.76653,0.624914,63.0,14,2.0508847236633301
1.45929,1.25652,-0.0336133,24.0,7,1.4592864513397217
2.04251,1.75807,0.722105,93.0,15,2.0425078868865967
1.5214,1.3063,-0.537308,1.0,0,1.521398663520813
2.08946,1.79342,0.0480639,70.0,8,2.0894625186920166
2.07541,1.7801,0.143296,67.0,9,2.0754146575927734
2.08579,1.78837,0.240376,72.0,10,2.0857889652252197
1.39786,1.19811,-0.291594,1.0,3,1.3978574275970459
2.05918,1.7643,0.332947,90.0,11,2.0591754913330078
1.39912,1.19835,-0.22619,1.0,4,1.3991214036941528
2.06922,1.77165,0.431446,78.0,12,2.0692167282104492
1.41356,1.21028,-0.162807,1.0,5,1.4135556221008301
2.05683,1.76042,0.526251,96.0,13,2.0568256378173828
1.42806,1.22183,-0.0984963,35.0,6,1.4280564785003662
2.06592,1.76696,0.627613,63.0,14,2.0659248828887939
1.45606,1.24492,-0.0334388,26.0,7,1.4560642242431641
2.06332,1.76349,0.727282,91.0,15,2.063316822052002
1.51125,1.28845,-0.532132,2.0,0,1.511247992515564
2.09723,1.78741,0.0480988,69.0,8,2.0972323417663574
1.68957,1.43946,-0.512438,1.0,1,1.6895689964294434
2.08618,1.77673,0.14361,62.0,9,2.0861771106719971
2.07988,1.77075,0.238981,68.0,10,2.0798826217651367
1.4276,1.21499,-0.296913,1.0,3,1.4276047945022583
2.07288,1.76354,0.334166,96.0,11,2.0728809833526611
1.43052,1.2166,-0.230577,1.0,4,1.4305152893066406
2.07238,1.76186,0.430821,78.0,12,2.0723788738250732
1.41322,1.20147,-0.162284,1.0,5,1.4132181406021118
2.07044,1.75959,0.528159,92.0,13,2.0704376697540283
1.4658,1.24529,-0.100799,45.0,6,1.4657996892929077
2.07505,1.76226,0.628513,65.0,14,2.0750513076782227
1.4604,1.23983,-0.0334388,31.0,7,1.4604008197784424
2.05768,1.74627,0.72314,91.0,15,2.0576767921447754
1.50984,1.27817,-0.530061,2.0,0,1.5098389387130737
2.10193,1.77879,0.0480639,70.0,8,2.1019320487976074
2.10609,1.78105,0.144552,66.0,9,2.1060919761657715
2.08757,1.76476,0.239155,71.0,10,2.0875723361968994
1.41373,1.1947,-0.293158,1.0,3,1.4137309789657593
2.08509,1.76141,0.335141,94.0,11,2.0850903987884521
1.44082,1.21673,-0.231552,1.0,4,1.4408202171325684
2.08757,1.76226,0.432698,75.0,12,2.0875716209411621
1.42501,1.20295,-0.163156,1.0,5,1.425014853477478
2.07057,1.74729,0.526633,92.0,13,2.0705661773681641
1.46861,1.23888,-0.100694,40.0,6,1.4686113595962524
2.09162,1.7638,0.631663,61.0,14,2.0916171073913574
1.48307,1.25019,-0.0338577,38.0,7,1.4830671548843384
2.06967,1.74406,0.725211,93.0,15,2.0696694850921631
1.54682,1.30024,-0.541449,6.0,0,1.5468246936798096
2.10966,1.77273,0.0480988,69.0,8,2.1096599102020264
1.62497,1.36496,-0.489943,1.0,1,1.6249681711196899
2.11994,1.78011,0.145075,62.0,9,2.1199436187744141
1.47644,1.23976,-0.374749,0.0,2,1.4764362573623657
2.1044,1.76643,0.240376,74.0,10,2.1044025421142578
1.47237,1.23546,-0.304422,0.0,3,1.4723690748214722
2.08514,1.74902,0.334166,90.0,11,2.0851421356201172
1.49373,1.2525,-0.239351,6.0,4,1.4937340021133423
2.0922,1.7537,0.432385,77.0,12,2.0921971797943115
1.43073,1.19925,-0.16333,0.0,5,1.4307324886322021
2.07364,1.73753,0.52587,87.0,13,2.0736427307128906
1.47599,1.23631,-0.100904,48.0,6,1.4759888648986816
2.10075,1.75899,0.632562,69.0,14,2.1007499694824219
1.49049,1.24757,-0.0339275,38.0,7,1.4904892444610596
2.07723,1.73806,0.725729,99.0,15,2.077225923538208
2.11494,1.76523,-0.738152,12.0,0,2.1149430274963379
2.12044,1.76919,0.0482035,70.0,8,2.1204416751861572
2.07868,1.73374,-0.624914,7.0,1,2.0786819458007812
2.11694,1.76502,0.144447,63.0,9,2.1169400215148926
1.47774,1.23208,-0.373986,0.0,2,1.4777388572692871
2.11515,1.7629,0.240898,71.0,10,2.115147590637207
1.48578,1.2379,-0.306299,2.0,3,1.4857784509658813
2.09429,1.74427,0.334653,99.0,11,2.0942850112915039
2.11501,1.76028,0.435826,73.0,12,2.1150069236755371
1.50382,1.2516,-0.171174,7.0,5,1.5038222074508667
2.09328,1.74158,0.529304,96.0,13,2.0932786464691162
1.50026,1.24775,-0.102264,63.0,6,1.500258207321167
2.09639,1.74293,0.629413,81.0,14,2.0963873863220215
1.51637,1.26025,-0.0344161,38.0,7,1.5163654088973999
2.09071,1.73697,0.728317,93.0,15,2.0907106399536133
2.12853,1.764,-0.74074,14.0,0,2.1285295486450195
2.13738,1.77071,0.0484479,69.0,8,2.1373832225799561
2.12374,1.75879,-0.636611,32.0,1,2.1237444877624512
2.12001,1.75507,0.144238,65.0,9,2.120011568069458
1.4911,1.23443,-0.376275,0.0,2,1.4911046028137207
2.12589,1.75932,0.241421,72.0,10,2.1258928775787354
1.4977,1.23901,-0.307863,3.0,3,1.4977009296417236
2.10036,1.73695,0.334653,94.0,11,2.1003613471984863
1.49938,1.23952,-0.238864,69.0,4,1.4993817806243896
2.10896,1.74282,0.433324,80.0,12,2.1089575290679932
1.53736,1.27046,-0.174486,56.0,5,1.5373629331588745
2.10389,1.73801,0.530449,87.0,13,2.1038854122161865
2.11298,1.74428,0.632562,71.0,14,2.1129786968231201
1.51459,1.24986,-0.0342765,38.0,7,1.5145854949951172
2.10272,1.73458,0.730387,93.0,15,2.1027214527130127
2.14362,1.76393,-0.743846,15.0,0,2.1436240673065186
2.14664,1.76578,0.0485177,69.0,8,2.1466395854949951
2.1389,1.75879,-0.639311,58.0,1,2.1389026641845703
2.13847,1.75781,0.145075,65.0,9,2.1384680271148682
1.48934,1.22423,-0.374749,0.0,2,1.489337682723999
2.13356,1.75315,0.241596,78.0,10,2.1335608959197998
1.50507,1.23628,-0.308489,4.0,3,1.5050700902938843
2.11255,1.73465,0.335628,96.0,11,2.1125481128692627
1.49756,1.22924,-0.237889,72.0,4,1.4975621700286865
2.11808,1.73796,0.433949,78.0,12,2.1180827617645264
1.53255,1.2575,-0.17344,80.0,5,1.5325471162796021
2.1236,1.74187,0.533884,94.0,13,2.1236007213592529
1.63094,1.33729,-0.110534,1.0,6,1.6309444904327393
2.12056,1.73813,0.633012,74.0,14,2.1205623149871826
1.51894,1.24457,-0.0342765,44.0,7,1.5189387798309326
2.10577,1.72478,0.729352,91.0,15,2.1057748794555664
2.14229,1.75032,-0.741258,17.0,0,2.1422889232635498
2.14969,1.75575,0.0484479,68.0,8,2.1496922969818115
2.15258,1.75748,-0.64156,63.0,1,2.152576208114624
2.14459,1.75033,0.145075,62.0,9,2.1445913314819336
1.4936,1.21902,-0.374749,0.0,2,1.4936022758483887
2.13504,1.74191,0.241073,72.0,10,2.1350350379943848
1.50325,1.22602,-0.307237,3.0,3,1.5032528638839722
2.12782,1.73479,0.337091,96.0,11,2.127821683883667
1.50646,1.22776,-0.23862,79.0,4,1.5064598321914673
2.13026,1.73554,0.435201,79.0,12,2.1302618980407715
1.52457,1.24208,-0.172045,66.0,5,1.5245698690414429
2.11901,1.72576,0.531212,92.0,13,2.1190123558044434
2.13266,1.73564,0.634812,79.0,14,2.1326620578765869
1.54499,1.25692,-0.0347652,39.0,7,1.5449910163879395
2.10878,1.71499,0.728317,95.0,15,2.1087849140167236
2.14989,1.74405,-0.741775,15.0,0,2.1498854160308838
2.1527,1.74571,0.0483781,68.0,8,2.1527018547058105
2.15416,1.74627,-0.640211,66.0,1,2.1541566848754883
2.15814,1.7495,0.145599,68.0,9,2.1581416130065918
1.50395,1.21874,-0.376275,0.0,2,1.5039492845535278
2.15504,1.74574,0.242642,78.0,10,2.155036449432373
1.50445,1.21828,-0.306612,4.0,3,1.504453182220459
2.13078,1.72486,0.336603,92.0,11,2.1307783126831055
1.51845,1.22874,-0.239839,84.0,4,1.5184518098831177
2.14522,1.73593,0.437078,79.0,12,2.1452186107635498
1.54594,1.25053,-0.173963,77.0,5,1.5459359884262085
2.12044,1.71465,0.530067,74.0,13,2.1204433441162109
2.14629,1.73431,0.637061,77.0,14,2.1462867259979248
1.55693,1.25808,-0.0349397,49.0,7,1.5569278001785278
2.12648,1.71769,0.732458,66.0,15,2.1264834403991699
2.17101,1.74865,-0.746952,18.0,0,2.1710057258605957
2.16782,1.74609,0.0485875,68.0,8,2.1678237915039062
2.15994,1.73912,-0.640211,64.0,1,2.159935474395752
2.16112,1.73945,0.145389,68.0,9,2.1611225605010986
1.54032,1.23933,-0.384289,1.0,2,1.5403164625167847
2.15956,1.73696,0.242467,74.0,10,2.1595649719238281
1.51464,1.21824,-0.307863,5.0,3,1.5146418809890747
2.13339,1.71529,0.336116,99.0,11,2.1333920955657959
1.51633,1.21872,-0.238864,82.0,4,1.5163294076919556
2.15435,1.7309,0.437704,79.0,12,2.1543455123901367
1.55806,1.25137,-0.174834,73.0,5,1.5580577850341797
2.14142,1.71991,0.533884,94.0,13,2.1414241790771484
2.14899,1.72474,0.636162,79.0,14,2.1489861011505127
1.57067,1.26014,-0.0351491,52.0,7,1.5706676244735718
2.13699,1.71389,0.734011,87.0,15,2.1369872093200684
2.17679,1.74145,-0.746952,15.0,0,2.1767921447753906
2.18015,1.74351,0.0487271,67.0,8,2.1801528930664062
2.17056,1.73522,-0.64156,61.0,1,2.1705591678619385
2.17,1.73477,0.145599,68.0,9,2.169999361038208
1.54748,1.23667,-0.385053,3.0,2,1.5474849939346313
2.17777,1.73973,0.243862,72.0,10,2.1777667999267578
1.52815,1.22034,-0.30974,6.0,3,1.5281463861465454
2.14247,1.71031,0.336603,96.0,11,2.1424698829650879
1.51747,1.21095,-0.238376,80.0,4,1.5174714326858521
2.16007,1.72375,0.437704,75.0,12,2.16007399559021
1.57622,1.25738,-0.176403,63.0,5,1.5762170553207397
2.15202,1.71609,0.535028,63.0,13,2.1520199775695801
1.61175,1.2848,-0.108021,1.0,6,1.6117453575134277
2.15499,1.71723,0.636162,70.0,14,2.1549930572509766
1.56545,1.24745,-0.0349397,55.0,7,1.5654546022415161
2.15021,1.71281,0.736599,91.0,15,2.1502137184143066
2.18286,1.73384,-0.746952,15.0,0,2.1828575134277344
2.19218,1.74125,0.0488667,69.0,8,2.1921846866607666
2.18698,1.73649,-0.64471,64.0,1,2.1869838237762451
1.54718,1.2276,-0.383908,5.0,2,1.5471787452697754
2.16822,1.71974,0.242119,59.0,10,2.168215274810791
1.53064,1.21404,-0.309427,7.0,3,1.5306366682052612
2.16057,1.71306,0.338553,92.0,11,2.1605737209320068
1.52148,1.20591,-0.238376,84.0,4,1.5214784145355225
2.15988,1.71129,0.436452,81.0,12,2.1598834991455078
1.56966,1.24321,-0.175183,56.0,5,1.5696637630462646
2.15924,1.71016,0.53541,84.0,13,2.1592385768890381
2.16526,1.71371,0.637511,79.0,14,2.165259838104248
1.5698,1.24198,-0.0349397,53.0,7,1.5697999000549316
2.15012,1.7005,0.734528,93.0,15,2.1501188278198242
2.18616,1.72343,-0.745917,16.0,0,2.1861639022827148
2.19571,1.73034,0.0487969,69.0,8,2.1957128047943115
2.1967,1.73049,-0.645609,60.0,1,2.196697473526001
2.11803,1.66852,0.141307,3.0,9,2.1180322170257568
1.55321,1.22313,-0.384289,3.0,2,1.5532099008560181
1.54615,1.2167,-0.311617,9.0,3,1.5461537837982178
1.53234,1.20497,-0.239351,89.0,4,1.5323396921157837
2.17235,1.70824,0.437704,79.0,12,2.1723535060882568
1.57421,1.23745,-0.175183,59.0,5,1.5742095708847046
2.16888,1.70429,0.536173,74.0,13,2.1688761711120605
2.18255,1.7138,0.640661,66.0,14,2.1825530529022217
1.58692,1.2461,-0.035219,50.0,7,1.5869232416152954
2.15786,1.6938,0.735046,87.0,15,2.1578562259674072
2.19977,1.72175,-0.748505,16.0,0,2.1997725963592529
2.19829,1.72058,0.0487271,66.0,8,2.1982898712158203
2.19935,1.7208,-0.64471,49.0,1,2.1993539333343506
2.11598,1.65497,0.140784,3.0,9,2.1159777641296387
2.20087,1.72075,-0.543042,21.0,2,2.2008733749389648
2.10982,1.64897,0.234275,3.0,10,2.1098244190216064
1.55329,1.214,-0.312243,14.0,3,1.5532926321029663
2.11803,1.65478,0.330022,3.0,11,2.1180274486541748
1.53633,1.19988,-0.239351,89.0,4,1.5363261699676514
1.58323,1.23562,-0.175706,60.0,5,1.5832319259643555
2.17142,1.69467,0.53541,94.0,13,2.1714208126068115
2.19283,1.71015,0.64201,83.0,14,2.1928341388702393
1.59442,1.24301,-0.0352888,46.0,7,1.5944176912307739
2.17138,1.6922,0.737634,91.0,15,2.171375036239624
2.19937,1.7097,-0.746434,21.0,0,2.1993687152862549
2.22007,1.72517,0.0490762,69.0,8,2.2200727462768555
2.20073,1.70952,-0.64336,26.0,1,2.2007308006286621
2.1041,1.63446,0.139632,2.0,9,2.1041040420532227
2.22673,1.72909,-0.548003,32.0,2,2.2267262935638428
2.12472,1.64929,0.23532,3.0,10,2.1247246265411377
1.56376,1.21342,-0.313495,17.0,3,1.5637638568878174
2.12065,1.64495,0.329535,3.0,11,2.1206533908843994
1.53109,1.18721,-0.237889,89.0,4,1.5310931205749512
1.5763,1.22182,-0.174486,56.0,5,1.5762972831726074
2.18198,1.69069,0.536555,55.0,13,2.1819784641265869
2.19879,1.70249,0.64201,59.0,14,2.1987905502319336
1.61118,1.24751,-0.035568,46.0,7,1.6111798286437988
2.18461,1.6909,0.740223,85.0,15,2.1846127510070801
2.20227,1.69965,-0.745399,34.0,0,2.2022650241851807
2.22262,1.71536,0.0490064,69.0,8,2.2226150035858154
2.21873,1.71174,-0.646959,19.0,1,2.2187316417694092
2.09398,1.61491,0.138586,3.0,9,2.0939805507659912
2.22031,1.71172,-0.544951,43.0,2,2.2203092575073242
2.11942,1.63335,0.2341,2.0,10,2.1194221973419189
1.57404,1.21305,-0.314746,22.0,3,1.5740379095077515
2.11037,1.62579,0.327097,2.0,11,2.1103706359863281
1.53817,1.18455,-0.238376,75.0,4,1.5381667613983154
2.14913,1.65446,0.429569,2.0,12,2.1491310596466064
1.59318,1.22603,-0.17588,69.0,5,1.5931843519210815
2.19224,1.68703,0.5377,84.0,13,2.1922402381896973
2.19825,1.69043,0.640211,74.0,14,2.1982455253601074
1.60601,1.23457,-0.0353586,51.0,7,1.6060119867324829
2.19203,1.68444,0.74074,83.0,15,2.1920332908630371
2.21556,1.69821,-0.747987,22.0,0,2.2155556678771973
2.24129,1.71732,0.0492856,68.0,8,2.2412874698638916
2.22779,1.70635,-0.647859,18.0,1,2.2277870178222656
2.11071,1.61609,0.139318,3.0,9,2.1107058525085449
2.23377,1.71032,-0.546859,43.0,2,2.2337677478790283
2.09793,1.60573,0.231137,3.0,10,2.0979304313659668
1.58611,1.21355,-0.316311,32.0,3,1.5861066579818726
2.11603,1.61841,0.327097,2.0,11,2.1160333156585693
1.54545,1.18158,-0.238864,87.0,4,1.545446515083313
2.13763,1.63375,0.426128,2.0,12,2.1376283168792725
1.58796,1.21321,-0.174834,56.0,5,1.587955117225647
2.21216,1.6901,0.541134,64.0,13,2.2121567726135254
2.21343,1.68984,0.64291,62.0,14,2.2134261131286621
1.61031,1.22895,-0.0353586,47.0,7,1.6103118658065796
2.1979,1.67678,0.74074,83.0,15,2.1979000568389893
2.23714,1.70178,-0.753163,18.0,0,2.2371401786804199
2.2409,1.70464,0.049146,64.0,8,2.2409026622772217
2.24924,1.71036,-0.652358,13.0,1,2.2492413520812988
2.11633,1.60872,0.139318,2.0,9,2.1163339614868164
2.24784,1.70806,-0.548767,45.0,2,2.2478368282318115
2.1038,1.59803,0.231137,3.0,10,2.1038012504577637
1.57481,1.19578,-0.313182,30.0,3,1.5748111009597778
2.12483,1.61342,0.327585,2.0,11,2.1248311996459961
1.55589,1.18098,-0.239839,84.0,4,1.5558861494064331
2.13702,1.6215,0.424876,2.0,12,2.1370232105255127
1.59694,1.21127,-0.175357,55.0,5,1.5969430208206177
2.21051,1.67605,0.539226,84.0,13,2.2105140686035156
2.22737,1.6876,0.64516,72.0,14,2.2273714542388916
1.63212,1.23661,-0.0357425,17.0,7,1.6321249008178711
2.2099,1.67376,0.742811,81.0,15,2.2098994255065918
2.25232,1.70094,-0.756269,14.0,0,2.2523174285888672
2.24713,1.69642,0.049146,68.0,8,2.2471349239349365
2.24305,1.69272,-0.648759,25.0,1,2.243051290512085
2.09989,1.58411,0.137853,3.0,9,2.0998938083648682
2.10459,1.58708,0.230614,2.0,10,2.1045939922332764
1.58055,1.19147,-0.313495,36.0,3,1.580553412437439
2.11488,1.59367,0.325147,2.0,11,2.114877462387085
1.56655,1.18005,-0.240814,82.0,4,1.5665463209152222
2.14926,1.61841,0.426128,2.0,12,2.1492645740509033
1.59161,1.19849,-0.174311,49.0,5,1.591611385345459
2.21949,1.67068,0.539989,72.0,13,2.2194886207580566
2.24104,1.68568,0.647409,51.0,14,2.2410352230072021
1.64304,1.23542,-0.0358821,9.0,7,1.6430392265319824
2.21911,1.66797,0.743846,74.0,15,2.2191081047058105
2.25824,1.69307,-0.756269,14.0,0,2.2582404613494873
2.25944,1.69336,0.0492856,69.0,8,2.259443998336792
2.24271,1.6802,-0.646959,50.0,1,2.2427074909210205
2.09902,1.57198,0.137434,3.0,9,2.0990159511566162
2.24871,1.68409,-0.546095,47.0,2,2.2487068176269531
2.11172,1.58092,0.230788,3.0,10,2.1117165088653564
1.59419,1.19304,-0.315372,46.0,3,1.5941916704177856
2.10771,1.57677,0.323198,2.0,11,2.1077108383178711
1.56748,1.1722,-0.240326,80.0,4,1.567476749420166
2.15015,1.60735,0.425189,2.0,12,2.1501538753509521
1.5894,1.18816,-0.173614,45.0,5,1.5894018411636353
2.24103,1.67468,0.543806,82.0,13,2.2410328388214111
2.24847,1.67901,0.647859,72.0,14,2.2484676837921143
1.64894,1.23088,-0.0359171,8.0,7,1.6489437818527222
2.2373,1.66946,0.747987,83.0,15,2.2373030185699463
2.27963,1.69671,-0.761446,15.0,0,2.2796344757080078
2.27818,1.69501,0.0495648,67.0,8,2.2781765460968018
2.26107,1.68167,-0.650558,61.0,1,2.2610681056976318
2.07564,1.54319,0.13555,3.0,9,2.0756402015686035
2.02455,1.50521,-0.490379,29.0,2,2.0245459079742432
2.11882,1.57472,0.230963,3.0,10,2.118821382522583
1.6031,1.191,-0.316311,58.0,3,1.6031032800674438
2.11002,1.56704,0.32271,3.0,11,2.1100151538848877
1.56518,1.16198,-0.239351,76.0,4,1.5651837587356567
2.14306,1.59042,0.422686,2.0,12,2.1430609226226807
1.59194,1.18142,-0.17344,46.0,5,1.5919395685195923
2.25002,1.66918,0.544569,69.0,13,2.250018835067749
2.24336,1.66303,0.64471,60.0,14,2.2433552742004395
1.67412,1.24059,-0.0363708,6.0,7,1.6741169691085815
2.24312,1.66164,0.747987,52.0,15,2.2431173324584961
2.28243,1.68645,-0.76041,14.0,0,2.2824344635009766
2.28408,1.68705,0.0495648,68.0,8,2.28407883644104
2.2779,1.68187,-0.653708,50.0,1,2.2778987884521484
2.09387,1.54543,0.136388,3.0,9,2.093869686126709
2.00293,1.47831,-0.483892,51.0,2,2.0029339790344238
2.09865,1.54839,0.228174,3.0,10,2.0986528396606445
1.60566,1.18423,-0.315998,67.0,3,1.6056612730026245
2.11547,1.55966,0.32271,3.0,11,2.1154725551605225
1.57562,1.16122,-0.240326,82.0,4,1.5756220817565918
2.14224,1.57824,0.421435,2.0,12,2.1422383785247803
1.59124,1.17231,-0.172917,34.0,5,1.5912418365478516
2.26532,1.6683,0.546859,72.0,13,2.2653169631958008
2.26955,1.6702,0.650558,69.0,14,2.2695510387420654
1.65911,1.22052,-0.035952,6.0,7,1.6591081619262695
2.26135,1.66295,0.752128,78.0,15,2.2613542079925537
2.27896,1.67162,-0.757305,13.0,0,2.2789614200592041
2.28995,1.67906,0.0495648,66.0,8,2.2899541854858398
2.03699,1.49304,-0.583073,12.0,1,2.0369904041290283
2.10731,1.54401,0.136911,3.0,9,2.1073067188262939
2.01125,1.47363,-0.484655,64.0,2,2.0112490653991699
2.10083,1.5387,0.227825,3.0,10,2.1008305549621582
1.60022,1.17162,-0.31412,66.0,3,1.600222110748291
2.1161,1.54875,0.321979,3.0,11,2.1160972118377686
1.58287,1.15806,-0.240814,84.0,4,1.5828703641891479
2.14455,1.56842,0.420809,2.0,12,2.1445460319519043
1.58568,1.15969,-0.171871,16.0,5,1.5856754779815674
2.26954,1.65923,0.546477,61.0,13,2.2695407867431641
2.28796,1.67147,0.654158,57.0,14,2.2879562377929688
1.67951,1.22652,-0.036301,6.0,7,1.6795066595077515
2.25934,1.64935,0.74954,56.0,15,2.2593441009521484
2.22075,1.61703,-0.736081,8.0,0,2.2207529544830322
2.29257,1.66871,0.049495,69.0,8,2.2925667762756348
1.99492,1.45152,-0.569576,39.0,1,1.9949171543121338
2.11107,1.53547,0.136806,3.0,9,2.1110684871673584
2.01003,1.46198,-0.483128,75.0,2,2.0100302696228027
2.08202,1.51379,0.22521,3.0,10,2.0820159912109375
1.6043,1.16602,-0.31412,56.0,3,1.6043024063110352
2.10704,1.53085,0.319785,3.0,11,2.1070370674133301
1.59975,1.16186,-0.242764,78.0,4,1.5997517108917236
2.14361,1.55628,0.419557,2.0,12,2.143613338470459
1.58971,1.15415,-0.171871,9.0,5,1.5897135734558105
2.28326,1.65706,0.548385,64.0,13,2.2832636833190918
2.30955,1.67491,0.658657,57.0,14,2.3095519542694092
1.67892,1.21712,-0.0361963,3.0,7,1.678921103477478
2.29794,1.66526,0.76041,72.0,15,2.2979381084442139
1.99623,1.44291,-0.659989,27.0,0,1.996229887008667
2.31459,1.67241,0.0498441,65.0,8,2.3145866394042969
1.99049,1.4377,-0.566877,47.0,1,1.9904935359954834
2.10158,1.51794,0.135864,3.0,9,2.1015775203704834
2.01353,1.45381,-0.482747,83.0,2,2.0135295391082764
2.11152,1.524,0.227825,3.0,10,2.1115210056304932
1.62438,1.17197,-0.317249,56.0,3,1.6243827342987061
2.10754,1.52,0.319054,3.0,11,2.1075375080108643
1.59414,1.14931,-0.241301,82.0,4,1.5941365957260132
2.14716,1.54801,0.419244,2.0,12,2.1471595764160156
1.58565,1.14277,-0.171,5.0,5,1.5856510400772095
2.29541,1.65367,0.549912,66.0,13,2.295405387878418
2.31222,1.66456,0.657757,59.0,14,2.3122215270996094
1.70405,1.22674,-0.0366501,1.0,7,1.7040461301803589
2.29561,1.65199,0.757822,61.0,15,2.2956066131591797
1.99969,1.4348,-0.659471,36.0,0,1.9996851682662964
2.32337,1.66705,0.0499139,69.0,8,2.3233697414398193
1.99525,1.43109,-0.566877,54.0,1,1.9952499866485596
2.09063,1.49895,0.134817,3.0,9,2.0906305313110352
2.017,1.44563,-0.482365,89.0,2,2.0169963836669922
2.11197,1.51314,0.227302,3.0,10,2.1119694709777832
1.63147,1.16888,-0.317875,60.0,3,1.6314712762832642
2.11902,1.51763,0.320029,3.0,11,2.1190216541290283
1.59471,1.1417,-0.240814,87.0,4,1.5947111845016479
2.13167,1.52556,0.415177,2.0,12,2.1316676139831543
1.5475,1.10708,-0.166467,0.0,5,1.5474988222122192
2.31525,1.65633,0.553346,67.0,13,2.31524658203125
2.31614,1.65575,0.657307,62.0,14,2.316143274307251
1.69855,1.21381,-0.0364406,1.0,7,1.6985549926757812
2.31236,1.65183,0.761446,72.0,15,2.3123631477355957
1.99657,1.42256,-0.656883,52.0,0,1.9965652227401733
2.33895,1.66589,0.0501233,65.0,8,2.338947057723999
1.99706,1.42186,-0.565977,61.0,1,1.9970579147338867
2.08121,1.48122,0.133875,3.0,9,2.0812056064605713
2.01538,1.43438,-0.480839,96.0,2,2.0153810977935791
2.08613,1.48418,0.22399,3.0,10,2.0861306190490723
1.6291,1.1586,-0.316623,58.0,3,1.6291022300720215
2.12107,1.50792,0.319541,3.0,11,2.1210706233978271
1.60192,1.13843,-0.241301,89.0,4,1.6019232273101807
2.12571,1.5101,0.412987,2.0,12,2.1257069110870361
1.49756,1.06387,-0.160715,1.0,5,1.4975615739822388
2.32422,1.65051,0.554109,68.0,13,2.3242161273956299
2.33621,1.65781,0.661356,58.0,14,2.3362116813659668
2.31339,1.6404,0.759893,68.0,15,2.3133878707885742
1.99363,1.41,-0.654295,62.0,0,1.9936323165893555
2.33495,1.65079,0.0499139,66.0,8,2.3349504470825195
2.02747,1.43288,-0.573175,62.0,1,2.0274722576141357
2.08799,1.4751,0.13398,2.0,9,2.0879943370819092
2.02358,1.4296,-0.481602,99.0,2,2.0235822200775146
2.0913,1.47689,0.22399,3.0,10,2.0912976264953613
1.63314,1.15291,-0.316623,52.0,3,1.6331368684768677
2.11335,1.49136,0.317592,3.0,11,2.1133460998535156
1.60913,1.13512,-0.241789,87.0,4,1.6091306209564209
2.14065,1.5095,0.414864,2.0,12,2.1406517028808594
1.5322,1.08045,-0.164027,0.0,5,1.5322033166885376
2.32836,1.64126,0.553728,69.0,13,2.3283593654632568
2.34517,1.65189,0.662256,59.0,14,2.3451714515686035
2.32542,1.63676,0.761963,76.0,15,2.3254187107086182
2.00012,1.40415,-0.654812,57.0,0,2.0001235008239746
2.34397,1.64493,0.0499837,67.0,8,2.34397292137146
2.01013,1.41012,-0.566877,52.0,1,2.0101265907287598
2.09804,1.47125,0.134294,3.0,9,2.0980367660522461
2.03499,1.42703,-0.483128,89.0,2,2.0349900722503662
2.08991,1.46501,0.223293,3.0,10,2.0899145603179932
1.642,1.1506,-0.317562,66.0,3,1.6420042514801025
2.11529,1.48169,0.317104,3.0,11,2.1152875423431396
1.61308,1.12949,-0.241789,84.0,4,1.6130834817886353
2.13296,1.49296,0.412361,2.0,12,2.1329607963562012
2.33568,1.63425,0.554109,67.0,13,2.3356821537017822
2.37328,1.65932,0.668555,59.0,14,2.3732819557189941
1.71117,1.19595,-0.0364406,1.0,7,1.7111730575561523
2.3327,1.62974,0.762481,65.0,15,2.3327009677886963
2.0066,1.39826,-0.65533,44.0,0,2.0065979957580566
2.35955,1.64359,0.0501931,66.0,8,2.3595452308654785
2.01983,1.40644,-0.568226,45.0,1,2.0198335647583008
2.09988,1.46163,0.134085,3.0,9,2.0998814105987549
2.0464,1.42441,-0.484655,81.0,2,2.0464048385620117
2.10156,1.46225,0.22399,3.0,10,2.1015572547912598
1.64115,1.14148,-0.316623,61.0,3,1.6411459445953369
2.10741,1.46523,0.315154,3.0,11,2.1074082851409912
1.6105,1.11932,-0.240814,87.0,4,1.610495924949646
2.13167,1.481,0.41111,2.0,12,2.1316704750061035
2.34944,1.63168,0.556017,66.0,13,2.3494358062744141
2.36785,1.64325,0.665405,62.0,14,2.3678534030914307
1.71534,1.18997,-0.0364406,1.0,7,1.7153375148773193
2.35425,1.63259,0.767657,72.0,15,2.3542501926422119
2.02418,1.40004,-0.659471,24.0,0,2.024177074432373
2.37514,1.64217,0.0504026,69.0,8,2.3751375675201416
2.03756,1.40824,-0.571826,28.0,1,2.0375561714172363
2.09157,1.44557,0.133247,3.0,9,2.0915722846984863
2.04813,1.41502,-0.483892,77.0,2,2.0481336116790771
2.08698,1.44132,0.221899,3.0,10,2.0869760513305664
1.64837,1.13798,-0.317249,60.0,3,1.6483713388442993
2.11414,1.45899,0.315398,3.0,11,2.1141433715820312
1.61439,1.1137,-0.240814,84.0,4,1.6143934726715088
2.12194,1.46383,0.408294,2.0,12,2.1219356060028076
2.36482,1.63016,0.558307,72.0,13,2.3648152351379395
2.37999,1.6394,0.667205,62.0,14,2.3799939155578613
1.6534,1.1389,-0.0350444,1.0,7,1.6534014940261841
2.3692,1.63135,0.770763,72.0,15,2.3691983222961426
2.0402,1.40062,-0.663094,24.0,0,2.0402007102966309
2.39046,1.64108,0.050612,67.0,8,2.3904621601104736
2.33304,1.60106,-0.653258,50.0,1,2.3330411911010742
2.10155,1.44165,0.133561,3.0,9,2.101546049118042
2.05306,1.40787,-0.483892,67.0,2,2.05306077003479
2.08871,1.43177,0.22155,3.0,10,2.0887079238891602
1.66191,1.13921,-0.319126,59.0,3,1.6619123220443726
2.12879,1.45871,0.31686,3.0,11,2.1287949085235596
1.62135,1.11058,-0.241301,80.0,4,1.6213536262512207
2.13355,1.46087,0.409545,2.0,12,2.1335525512695312
2.37831,1.62785,0.560215,67.0,13,2.3783080577850342
2.39024,1.6348,0.668555,61.0,14,2.3902432918548584
2.3685,1.61871,0.768693,72.0,15,2.3684990406036377
2.26991,1.54727,-0.736081,12.0,0,2.269909143447876
2.38956,1.62822,0.0504724,62.0,8,2.3895647525787354
2.38855,1.62691,-0.667205,58.0,1,2.3885455131530762
2.10161,1.43094,0.133247,3.0,9,2.1016132831573486
2.06583,1.40657,-0.4858,53.0,2,2.0658318996429443
2.08686,1.42036,0.220853,3.0,10,2.086855411529541
1.65935,1.12896,-0.317875,63.0,3,1.6593456268310547
2.11418,1.43787,0.313935,3.0,11,2.1141769886016846
1.6285,1.10715,-0.241789,76.0,4,1.6285028457641602
2.11577,1.43787,0.405165,2.0,12,2.1157655715942383
2.3791,1.61623,0.55907,67.0,13,2.3791043758392334
2.40238,1.63082,0.670354,58.0,14,2.4023842811584473
2.37094,1.60826,0.767657,74.0,15,2.3709371089935303
2.40038,1.62335,-0.776457,14.0,0,2.4003846645355225
2.39855,1.62211,0.0505422,17.0,8,2.3985469341278076
2.39098,1.61638,-0.666305,57.0,1,2.3909814357757568
2.10329,1.42136,0.133038,3.0,9,2.103285551071167
2.24179,1.51439,-0.52587,56.0,2,2.2417917251586914
2.08875,1.41047,0.220504,3.0,10,2.0887458324432373
1.65365,1.11624,-0.315998,63.0,3,1.6536482572555542
2.10602,1.4216,0.311986,3.0,11,2.1060202121734619
1.63236,1.10145,-0.241789,75.0,4,1.6323578357696533
2.13879,1.44263,0.408607,2.0,12,2.1387865543365479
2.38338,1.6064,0.558689,64.0,13,2.3833839893341064
2.42451,1.63289,0.674853,64.0,14,2.4245085716247559
2.39256,1.61077,0.772834,74.0,15,2.3925614356994629
2.42047,1.62465,-0.781116,14.0,0,2.4204733371734619
2.39949,1.60996,0.0504375,36.0,8,2.3994941711425781
2.40013,1.60978,-0.667205,57.0,1,2.4001259803771973
2.10019,1.40808,0.132515,3.0,9,2.1001865863800049
2.42155,1.62353,-0.566703,66.0,2,2.421546459197998
2.09697,1.40539,0.220853,3.0,10,2.0969657897949219
1.66246,1.11376,-0.316936,66.0,3,1.6624583005905151
2.10462,1.40945,0.311011,3.0,11,2.1046192646026611
1.62979,1.09105,-0.240814,80.0,4,1.629785418510437
2.13093,1.42599,0.406104,2.0,12,2.1309256553649902
2.39714,1.60353,0.560597,67.0,13,2.3971364498138428
2.42371,1.62009,0.673054,57.0,14,2.4237134456634521
1.56958,1.04876,-0.0329501,0.0,7,1.5695756673812866
2.40487,1.60628,0.774904,74.0,15,2.4048748016357422
2.43606,1.62219,-0.784222,14.0,0,2.4360589981079102
2.42341,1.61377,0.0508214,58.0,8,2.4234085083007812
2.41546,1.60787,-0.669904,58.0,1,2.4154644012451172
2.09345,1.39299,0.131782,3.0,9,2.0934493541717529
2.42421,1.61247,-0.565939,66.0,2,2.4242110252380371
2.09381,1.39218,0.219981,3.0,10,2.0938081741333008
1.66653,1.10766,-0.316936,66.0,3,1.6665290594100952
2.09795,1.39441,0.309304,3.0,11,2.0979535579681396
1.63028,1.08315,-0.240326,87.0,4,1.6302773952484131
2.12273,1.4098,0.403601,2.0,12,2.1227264404296875
2.41608,1.60342,0.56365,68.0,13,2.4160835742950439
2.42314,1.60688,0.671254,56.0,14,2.4231383800506592
1.51156,1.00238,-0.0316587,3.0,7,1.5115642547607422
2.42013,1.60428,0.77801,80.0,15,2.4201285839080811
2.43442,1.6107,-0.782151,15.0,0,2.4344165325164795
2.44515,1.61718,0.0511705,68.0,8,2.4451451301574707
2.43026,1.60672,-0.672604,57.0,1,2.4302570819854736
2.10781,1.39302,0.13241,3.0,9,2.1078124046325684
2.43226,1.60744,-0.566703,63.0,2,2.4322600364685059
2.09959,1.38706,0.220155,4.0,10,2.0995910167694092
1.68135,1.11033,-0.319126,61.0,3,1.6813473701477051
2.10729,1.39109,0.310036,4.0,11,2.1072943210601807
1.63699,1.08021,-0.240814,84.0,4,1.6369856595993042
2.14034,1.41183,0.406104,2.0,12,2.140336275100708
2.42903,1.60165,0.565558,66.0,13,2.4290258884429932
1.39411,0.9189,-0.0875057,1.0,6,1.3941127061843872
2.44091,1.60826,0.674853,61.0,14,2.4409141540527344
1.51805,0.999827,-0.0317285,7.0,7,1.5180461406707764
2.42354,1.59561,0.777492,76.0,15,2.4235429763793945
2.44002,1.60219,-0.782151,15.0,0,2.4400243759155273
2.44743,1.60644,0.0511006,68.0,8,2.447432279586792
2.44237,1.60251,-0.674403,58.0,1,2.4423668384552002
2.09763,1.37579,0.131468,3.0,9,2.0976314544677734
2.44442,1.60324,-0.568229,64.0,2,2.4444236755371094
2.09442,1.37316,0.21911,4.0,10,2.0944230556488037
1.672,1.09579,-0.316623,59.0,3,1.6719952821731567
2.10549,1.37937,0.309061,4.0,11,2.1054947376251221
1.64407,1.07667,-0.241301,82.0,4,1.6440681219100952
2.12872,1.39353,0.402975,2.0,12,2.1287240982055664
2.42639,1.58778,0.56365,73.0,13,2.4263877868652344
1.35386,0.885601,-0.0847843,1.0,6,1.3538550138473511
2.4563,1.60613,0.677553,60.0,14,2.4562995433807373
1.51483,0.990146,-0.0315889,8.0,7,1.5148313045501709
2.4291,1.58714,0.777492,78.0,15,2.42909836769104
2.44884,1.59577,-0.783186,15.0,0,2.4488401412963867
2.44967,1.5957,0.0510308,69.0,8,2.4496731758117676
2.44795,1.59397,-0.674403,58.0,1,2.4479460716247559
2.0974,1.36519,0.131154,3.0,9,2.0973999500274658
2.45659,1.59899,-0.569756,66.0,2,2.4565868377685547
2.09419,1.36259,0.218587,6.0,10,2.0941932201385498
1.6725,1.08779,-0.315998,61.0,3,1.6724978685379028
2.10198,1.3666,0.307842,6.0,11,2.1019759178161621
1.65447,1.07525,-0.242276,80.0,4,1.6544739007949829
2.13357,1.38609,0.402975,2.0,12,2.1335749626159668
2.43192,1.5793,0.56365,67.0,13,2.4319157600402832
1.37369,0.891745,-0.085831,1.0,6,1.373690128326416
2.45699,1.59437,0.676203,63.0,14,2.4569857120513916
1.53506,0.995734,-0.0319379,6.0,7,1.5350550413131714
2.43787,1.58075,0.778528,78.0,15,2.4378650188446045
2.46765,1.59517,-0.787328,15.0,0,2.4676508903503418
2.48042,1.60343,0.0515544,18.0,8,2.480419397354126
2.45677,1.58753,-0.675303,58.0,1,2.4567692279815674
2.09712,1.35461,0.13084,3.0,9,2.0971190929412842
2.47563,1.59849,-0.572809,61.0,2,2.4756250381469727
2.0975,1.35382,0.218412,5.0,10,2.0974996089935303
1.68477,1.08701,-0.317562,67.0,3,1.684773325920105
2.09672,1.3528,0.30638,5.0,11,2.0967249870300293
1.64821,1.06301,-0.240814,82.0,4,1.6482080221176147
2.1384,1.37863,0.402975,3.0,12,2.1384007930755615
1.44195,0.929272,-0.150082,0.0,5,1.4419476985931396
2.45089,1.57889,0.566703,67.0,13,2.4508907794952393
1.3568,0.873727,-0.0845749,1.0,6,1.3567991256713867
2.47428,1.59273,0.679352,61.0,14,2.4742836952209473
1.5402,0.991452,-0.0319728,2.0,7,1.5402028560638428
2.45637,1.58059,0.782669,76.0,15,2.4563651084899902
2.47808,1.58968,-0.78888,18.0,0,2.4780824184417725
2.47406,1.58588,-0.678452,61.0,1,2.474055290222168
2.09511,1.34297,0.130421,3.0,9,2.0951087474822998
2.47458,1.5856,-0.571282,66.0,2,2.4745783805847168
2.10389,1.34757,0.218587,6.0,10,2.1038899421691895
1.69188,1.08325,-0.318188,66.0,3,1.6918843984603882
2.10501,1.34725,0.306867,4.0,11,2.105013370513916
1.65209,1.05696,-0.240814,87.0,4,1.6520929336547852
2.12822,1.36158,0.400159,3.0,12,2.1282236576080322
1.55261,0.992934,-0.161238,0.0,5,1.5526061058044434
2.47458,1.58195,0.570901,69.0,13,2.4745833873748779
1.32955,0.849628,-0.0826908,1.0,6,1.3295470476150513
2.47654,1.58199,0.678452,61.0,14,2.4765431880950928
1.54702,0.988223,-0.0320426,0.0,7,1.5470244884490967
2.47164,1.57825,0.785775,72.0,15,2.4716372489929199
2.47873,1.57791,-0.787328,16.0,0,2.4787271022796631
2.06139,1.31224,0.0426537,1.0,8,2.0613930225372314
2.48588,1.58185,-0.680252,62.0,1,2.485877513885498
2.09136,1.33029,0.129898,2.0,9,2.0913574695587158
2.49004,1.58328,-0.573572,63.0,2,2.4900379180908203
2.09513,1.33166,0.217192,6.0,10,2.0951294898986816
1.69547,1.07764,-0.318188,58.0,3,1.6954675912857056
2.09942,1.33387,0.305405,5.0,11,2.0994162559509277
1.65894,1.05361,-0.241301,82.0,4,1.6589406728744507
2.13797,1.35732,0.401098,3.0,12,2.1379668712615967
2.47982,1.57374,0.570901,66.0,13,2.4798152446746826
1.36271,0.864472,-0.0845749,1.0,6,1.3627148866653442
2.49165,1.58003,0.681152,60.0,14,2.4916503429412842
1.57411,0.997805,-0.0325313,0.0,7,1.5741102695465088
2.47713,1.56961,0.785775,76.0,15,2.4771308898925781
2.48721,1.57174,-0.788363,14.0,0,2.4872119426727295
1.94762,1.23028,0.0402103,15.0,8,1.9476161003112793
2.49962,1.57837,-0.682501,56.0,1,2.4996225833892822
2.09768,1.32405,0.130003,2.0,9,2.0976777076721191
2.49693,1.57606,-0.573954,57.0,2,2.4969346523284912
2.09279,1.32046,0.216495,6.0,10,2.0927937030792236
1.69755,1.07066,-0.317875,61.0,3,1.6975479125976562
2.09734,1.3223,0.30443,5.0,11,2.0973422527313232
1.66597,1.04993,-0.241789,82.0,4,1.6659667491912842
2.12598,1.33932,0.397969,3.0,12,2.1259779930114746
2.48695,1.56612,0.571282,68.0,13,2.4869544506072998
1.34544,0.846942,-0.0833189,1.0,6,1.3454409837722778
2.50375,1.57547,0.682951,67.0,14,2.5037486553192139
1.5979,1.00508,-0.0329501,0.0,7,1.597895622253418
2.48914,1.56507,0.787845,76.0,15,2.4891369342803955
2.4665,1.54663,-0.780081,7.0,0,2.4664967060089111
1.93834,1.21498,0.0399311,13.0,8,1.9383436441421509
2.49356,1.56239,-0.679352,9.0,1,2.4935576915740967
2.10059,1.31566,0.129898,2.0,9,2.1005942821502686
2.09739,1.31314,0.216495,6.0,10,2.0973899364471436
1.69793,1.06263,-0.317249,66.0,3,1.6979262828826904
2.09858,1.31287,0.303942,5.0,11,2.0985798835754395
